# .PCD v0.7 - Point Cloud Data file format
VERSION 0.7
FIELDS x y z intensity
SIZE 4 4 4 4
TYPE F F F F
COUNT 1 1 1 1
WIDTH 1428
HEIGHT 1
VIEWPOINT 0 0 0 1 0 0 0
POINTS 1428
DATA ascii
10.076505 1.0522935 -0.61581933 52
24.226976 -7.9355679 -1.7715482 6
19.21241 -17.404211 -1.7138145 63
9.0185976 12.22065 -0.23810245 34
20.461119 11.67834 -0.98765647 6
10.100226 1.0155704 -0.61882538 65
23.942654 -7.9397407 -1.7438743 6
18.825546 -17.179701 -1.6577722 88
9.0938015 12.233057 -0.25515074 57
20.664175 11.694054 -1.0080627 6
10.083902 0.97659916 -0.61939567 54
23.923719 -8.0309172 -1.7311975 6
18.719486 -17.209007 -1.631359 56
9.1773205 12.251474 -0.27250412 37
13.195719 7.4038801 -0.65312594 38
10.067537 0.93777037 -0.61819357 33
24.10252 -8.1893721 -1.7372125 6
18.313229 -16.959721 -1.5791614 32
9.2288704 12.231171 -0.28636619 39
13.139515 7.3091669 -0.65704244 69
10.080742 0.90173388 -0.62058789 44
24.21916 -8.3281584 -1.7386671 6
18.123587 -16.901918 -1.5458622 22
9.3054304 12.248056 -0.30380833 49
13.106516 7.234015 -0.66216934 13
10.078898 0.86433375 -0.62206447 54
24.459673 -8.5064516 -1.7397372 6
18.06982 -16.975954 -1.5245242 25
9.3916502 12.263606 -0.32151452 34
13.082435 7.1523767 -0.6700781 60
10.07205 0.82655907 -0.62146688 36
24.582985 -8.6552954 -1.7369778 6
17.892494 -16.933172 -1.492883 82
9.4625711 12.271784 -0.33629152 18
13.053075 7.0802145 -0.67528296 78
10.07988 0.79000843 -0.62355393 37
24.733425 -8.8151665 -1.7406036 8
18.997932 -18.111731 -1.5719025 82
9.5483465 12.280846 -0.35142702 9
13.057951 7.0181055 -0.67946362 42
10.067994 0.75194675 -0.61912125 17
24.748749 -8.9230003 -1.7299659 8
18.234999 -17.518404 -1.4829718 10
9.6266909 12.301747 -0.36672935 9
13.032348 6.9487538 -0.68479961 88
10.08053 0.71572912 -0.62151128 40
24.739883 -9.0224171 -1.7222419 19
18.023495 -17.430424 -1.4482026 55
9.6776066 12.273957 -0.38356799 9
13.028783 6.8798418 -0.69360989 31
10.063168 0.67742509 -0.62029696 16
24.604515 -9.0753651 -1.7011588 96
17.847099 -17.398941 -1.4174379 36
9.7605448 12.290748 -0.39908403 9
13.040303 6.8249292 -0.70074242 37
10.085397 0.64178729 -0.62330115 69
nan nan nan 0
17.855379 -17.535023 -1.4009413 79
9.8145752 12.266301 -0.41615206 9
13.040365 6.7699776 -0.7073648 12
10.072737 0.60391068 -0.62238967 45
45.169743 -17.038059 -3.0886385 9
18.089611 -17.889433 -1.4016092 68
9.9323254 12.325109 -0.43336895 10
13.044774 6.7059393 -0.71654409 44
10.094803 0.56633037 -0.62539732 214
44.884212 -17.118557 -3.0562201 9
17.777246 -17.709785 -1.3601198 77
9.970788 12.280539 -0.4498966 9
13.060021 6.6533813 -0.72385883 16
10.092044 0.52906495 -0.6215716 241
44.893505 -17.310816 -3.0186639 18
17.716808 -17.779316 -1.3337666 44
10.151505 12.409971 -0.47023901 9
13.041551 6.5895996 -0.72940475 20
10.07376 0.49107912 -0.62387413 97
44.35136 -17.288795 -2.9777789 18
17.803217 -17.997408 -1.3271576 36
10.186956 12.373867 -0.48428312 10
13.047637 6.5327477 -0.73108017 40
10.100529 0.45527026 -0.62366205 10
44.123917 -17.368887 -2.9328244 9
17.821802 -18.142309 -1.3062164 32
10.279716 12.393783 -0.50364864 10
13.079848 6.4890471 -0.74444765 25
10.864632 0.45360461 -0.67456394 10
43.954269 -17.488462 -2.9088788 9
17.689795 -18.140352 -1.2788851 28
10.27555 12.292495 -0.5181731 10
13.048409 6.416791 -0.74658591 15
11.420154 0.43086702 -0.70494711 9
42.29715 -17.026121 -2.7793908 9
17.635189 -18.230072 -1.2532028 91
10.294444 12.223849 -0.53106141 9
13.039816 6.3533387 -0.75757211 17
11.980011 0.40801117 -0.74361742 24
42.346775 -17.226721 -2.7624264 9
17.523821 -18.241844 -1.2273419 49
10.470303 12.349397 -0.55237967 10
13.062892 6.3054357 -0.76022512 9
12.689873 0.38561347 -0.78537017 40
42.409332 -17.433603 -2.7462277 9
17.437117 -18.285137 -1.1990795 39
10.54536 12.350363 -0.57131726 10
13.072032 6.2508821 -0.76714736 9
nan nan nan 0
nan nan nan 0
17.583794 -18.574663 -1.186635 20
10.577148 12.296121 -0.58500469 10
13.10802 6.2091699 -0.77565455 30
nan nan nan 0
nan nan nan 0
17.725014 -18.861729 -1.1778218 112
10.613004 12.251135 -0.60184252 9
13.098673 6.1460667 -0.7814799 10
27.612019 0.53516483 -1.7084668 1
nan nan nan 0
17.475794 -18.726986 -1.1428541 42
10.677155 12.234366 -0.61736161 10
13.129786 6.1020527 -0.78971779 18
27.93322 0.43406826 -1.7282348 1
20.450697 -8.7595005 -1.2889398 88
17.217674 -18.586388 -1.1079085 38
10.72144 12.194691 -0.63460016 24
13.115399 6.0370159 -0.79521549 21
28.882742 0.34290972 -1.7868997 5
20.229715 -8.7443495 -1.265103 165
17.112953 -18.609587 -1.0830872 46
10.816519 12.216646 -0.65218741 13
13.154959 5.9969082 -0.80904758 25
28.140255 0.23091263 -1.7409052 3
20.048693 -8.7617846 -1.2442944 168
17.021635 -18.64035 -1.0590072 76
10.914004 12.236169 -0.66992623 17
13.144868 5.934206 -0.80972362 10
28.904444 0.1312058 -1.7881439 2
19.756729 -8.7205667 -1.2166386 10
16.89382 -18.650051 -1.0289117 39
11.038384 12.284769 -0.69235653 10
13.220555 5.9101543 -0.82583857 46
27.702032 0.024182087 -1.7137421 1
19.565443 -8.7219591 -1.1991512 10
17.841757 -19.828167 -1.0669812 9
11.083265 12.257099 -0.70451391 9
13.299277 5.8925009 -0.8321808 32
28.131136 -0.068758786 -1.7402922 2
19.378017 -8.7155275 -1.1706777 10
16.704533 -18.695055 -0.98061132 14
11.076314 12.168128 -0.71610332 8
13.373321 5.8723292 -0.84080851 48
nan nan nan 0
19.204086 -8.713973 -1.150683 10
16.427902 -18.521484 -0.93769938 80
11.077228 12.071514 -0.73047125 6
13.478505 5.8541036 -0.85892862 30
28.583986 -0.27947098 -1.7683797 2
19.005764 -8.7161684 -1.1370443 15
16.330669 -18.548279 -0.91838825 53
11.235343 12.162682 -0.75292706 5
13.552722 5.8329854 -0.86510652 70
29.176714 -0.38206261 -1.8051121 3
18.723907 -8.6621456 -1.1036875 13
16.516478 -18.891729 -0.90587819 10
11.250739 12.085995 -0.76841807 4
13.63961 5.8056102 -0.88226289 50
29.169956 -0.49913302 -1.8047942 2
18.518795 -8.6537485 -1.0897965 25
16.391979 -18.901802 -0.8809427 11
11.259618 12.015444 -0.77803117 6
13.736679 5.7931933 -0.89261782 26
28.978336 -0.60213649 -1.7930523 1
18.297817 -8.632329 -1.0678582 19
17.373672 -20.161297 -0.91351229 27
11.453811 12.133319 -0.80612099 5
13.867918 5.788765 -0.90777004 28
27.763849 -0.66904426 -1.7180222 1
18.129833 -8.626687 -1.0490267 12
17.407436 -20.350712 -0.89541298 85
11.585022 12.186879 -0.82729119 4
13.985459 5.7777314 -0.92213571 37
27.691103 -0.77856082 -1.7136849 1
17.956053 -8.6325617 -1.0303268 10
17.294067 -20.383068 -0.8606571 105
11.539268 12.050059 -0.83569437 6
14.14467 5.7829051 -0.93937254 33
29.010027 -0.91702956 -1.7954789 3
17.82897 -8.6443615 -1.0141219 10
17.294922 -20.514236 -0.84012347 36
11.620717 12.04651 -0.85912716 6
14.322751 5.7945271 -0.9553082 25
27.758987 -0.98907655 -1.7231289 6
17.64678 -8.6436739 -0.99178904 9
17.152056 -20.511164 -0.81338757 23
11.715919 12.064909 -0.87224346 6
14.445346 5.7826042 -0.97035527 37
27.606554 -1.0753459 -1.7041799 6
17.537745 -8.6624937 -0.9802745 8
16.717009 -20.133152 -0.76828498 78
11.712004 11.977004 -0.88371491 6
14.558752 5.76618 -0.98488986 29
27.697161 -1.1805911 -1.7100071 6
nan nan nan 0
16.437077 -19.944139 -0.73130143 39
11.88184 12.053597 -0.91386652 5
14.723492 5.7690811 -1.0002506 50
27.726793 -1.2934142 -1.7169803 6
35.130917 -17.689199 -1.9223013 8
16.281963 -19.904022 -0.70929068 33
11.963583 12.056323 -0.9262045 5
14.851052 5.7563624 -1.0159612 36
27.82762 -1.3906391 -1.7137139 6
34.992825 -17.76535 -1.897053 16
16.272894 -20.035042 -0.68001109 39
11.962385 11.97134 -0.94383335 6
14.983361 5.7445664 -1.032113 24
28.120735 -1.5086664 -1.7419335 2
34.706131 -17.780069 -1.8642246 21
16.297039 -20.21559 -0.66104615 26
12.108256 12.028881 -0.96703333 5
15.13927 5.740778 -1.0471826 23
28.708218 -1.6457609 -1.7736181 4
34.748386 -17.962767 -1.842303 10
16.058214 -20.062098 -0.62689906 38
12.290099 12.12043 -0.99637353 4
15.262112 5.723474 -1.0686172 24
28.313459 -1.7273002 -1.7495767 3
34.577606 -18.043081 -1.8297242 32
15.981793 -20.117208 -0.608455 28
12.401542 12.141056 -1.0172272 5
15.465072 5.7350125 -1.087242 44
29.137955 -1.8950678 -1.8009417 2
34.454948 -18.140013 -1.7991477 13
16.044149 -20.355522 -0.58623219 91
12.386042 12.041539 -1.0248268 6
15.621645 5.7280192 -1.0997937 32
28.340097 -1.9475405 -1.7370914 3
34.521973 -18.337154 -1.7716087 8
16.398092 -20.961945 -0.56903195 9
12.569326 12.130507 -1.0549012 6
15.796581 5.7265711 -1.1225175 36
28.865124 -2.084914 -1.7798109 4
34.362362 -18.414181 -1.7596984 19
16.708416 -21.512833 -0.56298316 9
12.591371 12.063021 -1.0685421 6
15.925102 5.707201 -1.1361983 31
28.618734 -2.1726167 -1.7600288 3
32.371143 -17.500097 -1.6349235 9
16.968735 -22.013866 -0.54007268 7
12.580541 11.964578 -1.0793359 6
16.04681 5.6908398 -1.152584 36
28.919022 -2.3020806 -1.7789601 5
31.853142 -17.356779 -1.5923275 40
15.731574 -20.556732 -0.48000276 9
12.670749 11.962287 -1.0988059 7
16.248053 5.6888723 -1.1715462 9
29.363283 -2.4458129 -1.8016205 2
31.110186 -17.114222 -1.5334139 10
15.489133 -20.408987 -0.44783148 9
12.755368 11.958299 -1.1180592 6
16.44734 5.6910577 -1.1936692 9
29.294147 -2.5482366 -1.8030429 2
30.53113 -16.93474 -1.489153 32
15.678007 -20.79306 -0.43664992 5
12.830709 11.949291 -1.1367587 6
16.654499 5.7009583 -1.2135984 8
27.624554 -2.5050819 -1.7007867 1
30.069979 -16.809559 -1.4510089 61
15.560115 -20.794638 -0.40788063 1
12.917611 11.942166 -1.1562225 6
16.765642 5.6671658 -1.2264246 9
27.715443 -2.6158004 -1.6922816 1
29.982965 -16.905403 -1.4253937 38
15.657652 -21.077814 -0.38905796 4
13.037539 11.96478 -1.1818701 6
16.946329 5.6591191 -1.2507597 9
29.418642 -2.8854115 -1.8072137 1
29.873255 -16.988152 -1.4167949 10
15.951446 -21.638344 -0.36975223 2
13.312829 12.127884 -1.218811 6
23.715914 7.8232689 -1.7615671 6
28.872978 -2.9286182 -1.7691456 3
29.651323 -17.006021 -1.3849862 75
13.679398 -18.692371 -0.29399347 8
13.591001 12.294813 -1.2566377 8
23.506731 7.6588316 -1.7527539 6
28.201183 -2.9749281 -1.7236713 6
29.637226 -17.142551 -1.3629826 109
13.78657 -18.998201 -0.27294815 8
nan nan nan 0
23.576784 7.586165 -1.7647281 5
nan nan nan 0
29.40653 -17.153229 -1.3370731 29
13.863607 -19.245153 -0.2506077 8
14.203815 12.661223 -1.3418856 153
23.275871 7.3952923 -1.7488759 6
29.066019 -3.2818344 -1.7829554 2
29.037203 -17.07387 -1.2991174 11
nan nan nan 0
14.3234 12.682872 -1.3628494 33
23.244543 7.2916465 -1.761739 6
29.50461 -3.4461708 -1.8053856 2
28.78574 -17.068285 -1.278631 9
nan nan nan 0
14.923228 13.116787 -1.4330217 28
23.08979 7.1502266 -1.7523915 6
27.975864 -3.3716211 -1.7075866 1
28.616762 -17.110094 -1.2444355 24
15.045435 -21.369001 -0.19737652 5
14.519304 12.667785 -1.4069176 10
23.028822 7.0389466 -1.7628313 6
nan nan nan 0
28.678337 -17.289898 -1.2378238 37
14.796178 -21.171461 -0.1766545 7
14.376774 12.442187 -1.4052026 157
22.834267 6.8880501 -1.7544975 6
28.441095 -3.6394503 -1.727384 2
28.788757 -17.514372 -1.2216889 9
nan nan nan 0
14.274747 12.275736 -1.4114857 43
22.57143 6.7186017 -1.7490598 6
28.066053 -3.696094 -1.7103055 1
28.802332 -17.646805 -1.2066119 76
nan nan nan 0
14.345405 12.245358 -1.4275055 32
22.735214 6.6724091 -1.7682052 6
28.161123 -3.8137028 -1.7168671 1
28.736258 -17.765318 -1.1828327 8
12.045649 -17.64538 -0.077987231 27
14.30932 12.124224 -1.436182 37
22.665628 6.5704131 -1.7694874 6
28.895096 -4.0107474 -1.7572366 3
28.177401 -17.549183 -1.1387103 55
11.975947 -17.668678 -0.058981031 16
14.371736 12.086943 -1.4547111 40
22.61931 6.4586458 -1.7722276 5
29.229868 -4.1769114 -1.7733421 3
28.058226 -17.617996 -1.1245799 48
11.735198 -17.457243 -0.032075118 59
14.452988 12.065173 -1.4785215 23
22.390472 6.3130593 -1.7609257 5
28.12969 -4.1149535 -1.702364 1
27.694368 -17.531326 -1.0893192 25
11.626839 -17.433546 -0.0096751694 36
14.484561 12.001764 -1.4939936 39
22.345018 6.2119169 -1.7719541 6
29.274029 -4.3920403 -1.7776816 3
27.53661 -17.566357 -1.0680774 24
11.623921 -17.561546 0.0052994662 24
14.585016 12.003684 -1.5137241 29
22.088467 6.053441 -1.7539759 6
29.218578 -4.4933124 -1.7700391 2
26.022558 -16.734955 -0.98977989 29
11.496428 -17.507839 0.027539445 39
14.77473 12.069291 -1.5424526 37
22.013653 5.94626 -1.7544146 6
28.314764 -4.4606423 -1.7111603 1
26.007782 -16.86046 -0.96957767 57
11.618211 -17.828419 0.054303523 19
14.80982 12.00778 -1.5618442 39
21.938354 5.8397093 -1.7547807 6
29.18084 -4.7067771 -1.7540874 2
25.908463 -16.931242 -0.95704311 9
11.615683 -17.961142 0.073578164 8
15.004027 12.074409 -1.5948043 18
21.684565 5.6830702 -1.7485825 6
28.615643 -4.7284551 -1.7261776 2
25.975008 -17.104362 -0.9396553 10
11.347323 -17.687836 0.094633736 35
14.900703 11.90586 -1.5997292 30
10.193233 2.6315393 -0.8286162 7
29.371082 -4.9639692 -1.7675219 5
25.854139 -17.160925 -0.92638111 10
11.215715 -17.617579 0.10895013 20
15.091444 11.967941 -1.6326487 32
10.139728 2.5781121 -0.82721776 9
28.600481 -4.9416461 -1.7170489 6
25.820711 -17.275343 -0.90540648 98
nan nan nan 0
15.094668 11.880695 -1.6487708 29
10.182814 2.5493562 -0.83185786 9
29.437126 -5.1974244 -1.773546 6
25.89452 -17.462393 -0.88807493 112
nan nan nan 0
15.07829 11.778585 -1.6559417 65
10.206325 2.5155151 -0.83676082 9
28.504545 -5.1405964 -1.7133121 6
25.858753 -17.569836 -0.86678195 74
nan nan nan 0
15.124114 11.725414 -1.6732991 30
10.210058 2.4767699 -0.84374684 10
29.364786 -5.4069595 -1.7556361 3
25.707983 -17.605419 -0.84722066 8
9.3325987 -15.14458 0.16847758 13
15.102873 11.620594 -1.6798582 34
10.214357 2.4363112 -0.84706146 10
29.820913 -5.6040554 -1.7787019 9
25.549189 -17.634516 -0.82208472 68
nan nan nan 0
15.207002 11.612293 -1.7104839 24
10.208227 2.3953309 -0.85139203 9
29.220816 -5.6022897 -1.7596477 94
25.5667 -17.785275 -0.81352013 90
nan nan nan 0
15.260142 11.564608 -1.7287518 12
10.206936 2.3555801 -0.85428494 9
28.632448 -5.5983853 -1.7151152 85
25.054703 -17.559139 -0.77747935 40
9.3511753 -15.542369 0.22330873 9
15.313077 11.525017 -1.7474763 23
10.200483 2.3147366 -0.85858727 9
28.190468 -5.6193542 -1.6947901 93
23.761513 -16.783007 -0.72877097 201
9.3890734 -15.729247 0.24179757 26
15.425757 11.521537 -1.7726725 14
10.218036 2.2793655 -0.86675858 10
27.940073 -5.6760206 -1.6758747 10
23.476204 -16.710752 -0.70647609 8
9.2778206 -15.672934 0.25978488 18
15.286871 11.330773 -1.7655467 11
10.216046 2.2415023 -0.86780018 9
27.9832 -5.791678 -1.6696039 6
23.317753 -16.727005 -0.68318093 8
nan nan nan 0
14.909458 10.966649 -1.7403291 38
10.170784 2.1888056 -0.8705622 9
28.771667 -6.06497 -1.7332957 6
23.540066 -17.017475 -0.68104589 51
nan nan nan 0
14.892004 10.869953 -1.7500751 74
10.221706 2.1643107 -0.876176 62
28.608309 -6.1401548 -1.7144328 5
23.351732 -17.005667 -0.65177655 99
8.617589 -14.917212 0.29467446 10
14.958689 10.834843 -1.7697101 98
nan nan nan 0
29.944683 -6.5473948 -1.8012501 4
23.333778 -17.123795 -0.64258659 30
10.060532 -17.57015 0.37141252 50
14.839145 10.665593 -1.7704546 96
11.124648 2.2704027 -0.96618092 23
28.590361 -6.3611917 -1.721054 5
23.315367 -17.242067 -0.62829399 118
10.094146 -17.75786 0.38926598 90
14.767198 10.53205 -1.7766346 9
11.088653 2.2187297 -0.97030538 10
28.586031 -6.4703159 -1.7272192 6
24.141184 -17.983433 -0.64139426 187
9.1984768 -16.334265 0.37722978 9
14.666225 10.386888 -1.7826884 7
nan nan nan 0
nan nan nan 0
23.871317 -17.91881 -0.63040984 136
9.996953 -17.897861 0.42717731 22
14.361675 10.175069 -1.7738061 6
nan nan nan 0
nan nan nan 0
23.81921 -17.886402 -0.68111587 121
nan nan nan 0
14.353397 10.248423 -1.7678853 6
11.115077 2.2240524 -1.0065074 10
nan nan nan 0
23.871937 -17.789646 -0.71229202 128
9.9628134 -17.677471 0.36932516 26
14.449777 10.397408 -1.7748225 7
11.135734 2.2727098 -1.0091155 16
26.236816 -5.8328552 -1.682905 6
23.246084 -17.197481 -0.7224378 39
10.093726 -17.764734 0.3465859 81
14.508138 10.512615 -1.7829221 9
11.078223 2.3033226 -1.0085993 10
25.798605 -5.6362748 -1.6720788 51
23.324394 -17.1236 -0.75356781 37
8.6052151 -15.022882 0.26922172 9
14.462243 10.560411 -1.7723538 34
10.314351 2.1839905 -0.94158942 128
25.866438 -5.5518379 -1.6984334 102
23.36692 -17.029755 -0.79373139 111
8.6452971 -14.965639 0.24433628 9
14.540687 10.699605 -1.7738274 93
10.223834 2.2040205 -0.93033552 10
26.325436 -5.549479 -1.7367625 28
23.056099 -16.674246 -0.80129397 142
nan nan nan 0
14.543969 10.788358 -1.7726685 94
10.210505 2.2403619 -0.93349886 10
26.559679 -5.4972482 -1.7652431 8
23.201578 -16.650383 -0.83447605 8
9.1723585 -15.625584 0.20813361 11
14.545202 10.872125 -1.7646543 92
10.245728 2.289377 -0.93562353 12
25.853271 -5.2616792 -1.7310892 6
23.226215 -16.545639 -0.86347401 35
9.2497921 -15.632424 0.1893435 20
14.486633 10.911306 -1.7462014 57
10.208449 2.3203764 -0.9292621 151
25.749472 -5.1423187 -1.7321706 6
23.155577 -16.367769 -0.87874305 110
9.3659687 -15.697379 0.17109899 15
14.494865 11.000997 -1.7422136 19
10.209579 2.3600371 -0.93010128 176
25.710257 -5.0272279 -1.7420449 6
23.525539 -16.500404 -0.9209227 28
nan nan nan 0
14.78731 11.3086 -1.7722793 10
10.225104 2.403156 -0.93226594 10
25.512625 -4.8915424 -1.7320765 6
23.719429 -16.500935 -0.94655281 22
nan nan nan 0
14.809854 11.412088 -1.7665905 9
10.206271 2.4401374 -0.92950153 24
25.243156 -4.7531347 -1.7307994 6
23.723797 -16.387592 -0.97506833 8
nan nan nan 0
14.828155 11.513021 -1.7570435 12
10.202415 2.4787941 -0.92623061 10
25.604343 -4.7193885 -1.7589695 4
25.18453 -17.26067 -1.0541722 96
9.2224073 -14.960674 0.077475838 9
14.786598 11.567865 -1.7469921 20
10.178755 2.5126076 -0.92486459 8
25.1171 -4.5253735 -1.7288058 6
25.737276 -17.494734 -1.1074734 37
nan nan nan 0
14.686431 11.576502 -1.7267667 10
10.301136 2.5790989 -0.93297637 5
24.910017 -4.4028115 -1.7269218 6
25.512831 -17.218809 -1.1171696 18
nan nan nan 0
14.598322 11.594016 -1.7047602 22
10.117247 2.5762751 -0.91352457 8
24.779425 -4.2771969 -1.7255738 6
25.539526 -17.088062 -1.1371694 111
11.118449 -17.614439 0.021765759 21
14.533118 11.62934 -1.6920602 17
10.112558 2.6146033 -0.91391057 8
24.243172 -4.0931678 -1.7001883 6
24.844589 -16.497929 -1.1352353 8
nan nan nan 0
14.468271 11.656333 -1.6757189 21
19.228979 5.043355 -1.7357888 6
24.418715 -4.0395436 -1.7159619 6
24.760807 -16.324287 -1.1499484 8
11.416764 -17.803911 -0.026555801 64
14.441851 11.72257 -1.6643057 34
19.290693 5.1424241 -1.7395909 6
25.030279 -4.0375223 -1.7623172 4
26.01697 -17.003099 -1.2380662 8
11.607083 -17.9489 -0.057044409 27
14.476819 11.839211 -1.6599354 30
19.345964 5.225956 -1.7425137 6
24.323309 -3.8407524 -1.724659 5
25.923014 -16.825747 -1.24756 35
11.475712 -17.610842 -0.082099631 9
14.346064 11.820251 -1.6333209 40
19.279222 5.283843 -1.7311038 6
24.17918 -3.7271869 -1.7178224 5
26.05475 -16.775936 -1.2837629 9
11.298225 -17.207027 -0.10227159 40
14.28799 11.860577 -1.6216207 38
19.336519 5.3758512 -1.7379034 6
24.073414 -3.6205821 -1.7222344 6
26.86223 -17.143757 -1.3427963 32
11.297603 -17.069557 -0.12346382 61
14.27993 11.942518 -1.6090624 34
19.508093 5.5043569 -1.7479719 6
23.878967 -3.5018575 -1.7116953 6
26.757751 -16.952517 -1.3572067 206
11.598304 -17.391848 -0.14829673 36
14.218118 11.979614 -1.5904561 27
19.361622 5.5470653 -1.7331721 6
23.981411 -3.4185688 -1.7223631 6
26.910204 -16.904736 -1.3953222 10
11.678715 -17.367811 -0.17804633 87
14.175203 12.032528 -1.5740006 30
19.477669 5.6502895 -1.7379984 6
23.923723 -3.3209023 -1.7301098 6
27.98456 -17.436949 -1.4653403 11
11.466933 -16.931479 -0.19210249 143
14.131868 12.085109 -1.5607882 28
19.419176 5.7105894 -1.7274085 6
23.657549 -3.2040017 -1.7143276 6
28.786686 -17.790659 -1.5279338 8
12.050413 -17.646891 -0.22720683 22
14.092354 12.132437 -1.5508417 34
19.470312 5.803266 -1.7265835 6
23.72377 -3.1202245 -1.7225068 6
28.431362 -17.441107 -1.5354695 15
13.499693 -19.629345 -0.27859741 9
14.060139 12.19467 -1.5356135 24
19.68796 5.946815 -1.7404605 6
23.284588 -2.9756558 -1.6939924 5
28.648968 -17.437302 -1.5677111 8
13.779773 -19.872953 -0.31275219 10
14.007267 12.234702 -1.5179278 35
19.756077 6.0502887 -1.7411382 6
23.636526 -2.9325964 -1.7230387 6
28.562056 -17.241299 -1.5831631 10
13.789276 -19.731972 -0.3327162 8
13.978119 12.299819 -1.506321 25
19.695702 6.1108785 -1.7376629 6
23.245182 -2.7975481 -1.7061301 6
28.630049 -17.125957 -1.6068153 43
13.978547 -19.855091 -0.36988607 9
13.896463 12.318597 -1.4890889 32
19.959242 6.2729487 -1.7517784 6
23.403576 -2.7295985 -1.7211974 6
28.84482 -17.124834 -1.6335781 14
13.894215 -19.589825 -0.38716698 30
13.907989 12.420094 -1.4785744 30
19.831665 6.3128443 -1.7424799 6
23.041191 -2.6017435 -1.7020217 6
29.127007 -17.134682 -1.6814884 10
13.950998 -19.518101 -0.41645014 13
13.792955 12.408485 -1.4546374 32
19.979702 6.4407325 -1.7500472 6
23.586535 -2.5674424 -1.7457484 6
29.103642 -16.98451 -1.7006038 21
13.870533 -19.249065 -0.44122514 9
13.792685 12.49996 -1.4428446 36
20.075258 6.5528722 -1.7492501 6
23.227655 -2.4504404 -1.7227169 6
29.039291 -16.804619 -1.7170422 39
13.704982 -18.887094 -0.45466608 9
13.769829 12.571423 -1.4286518 93
20.080078 6.6360016 -1.744218 6
23.355238 -2.3773491 -1.7356876 5
29.236942 -16.789848 -1.7434212 21
nan nan nan 0
13.687729 12.588725 -1.4116085 33
16.975985 5.6759911 -1.4699049 7
23.016808 -2.2536073 -1.709927 6
29.904373 -17.027744 -1.8099293 10
nan nan nan 0
13.150799 12.179861 -1.3446544 6
16.74612 5.6739879 -1.4425231 9
23.203333 -2.1860108 -1.7273099 6
29.732168 -16.772036 -1.8196714 9
15.510835 -20.889259 -0.59445977 1
13.081875 12.196828 -1.3289645 15
16.609825 5.6892934 -1.4261318 8
23.156263 -2.0959499 -1.7273438 5
29.812904 -16.687521 -1.8394482 26
15.687383 -20.981453 -0.62179786 1
13.241511 12.436643 -1.3336217 9
16.438183 5.6979294 -1.4130694 8
22.95952 -1.9933016 -1.7202396 6
15.547885 -8.6316977 -0.97627282 9
15.700982 -20.832613 -0.65603149 6
13.251056 12.537278 -1.3229541 134
16.208973 5.6914783 -1.3861455 9
22.881901 -1.9020606 -1.7179574 6
15.695531 -8.6314402 -0.99608636 10
16.975943 -22.361643 -0.73587018 6
13.249208 12.627828 -1.3110803 109
16.082439 5.707037 -1.3708411 10
22.739309 -1.8062834 -1.7107823 6
15.833152 -8.6388741 -1.0126213 32
16.213099 -21.195177 -0.72314471 5
13.123318 12.595482 -1.2835864 31
15.958892 5.729147 -1.3530459 11
22.87504 -1.7326869 -1.7205387 6
15.916919 -8.6090317 -1.0256255 18
16.082041 -20.872635 -0.74204522 9
12.694212 12.273279 -1.2302837 9
15.786312 5.7388487 -1.3343357 22
22.851103 -1.6466321 -1.722326 6
16.043102 -8.5942345 -1.0444545 10
16.225183 -20.89974 -0.77786893 6
12.564183 12.236921 -1.2064037 6
15.622808 5.7381401 -1.3132479 23
22.787613 -1.5540953 -1.7171105 6
16.22529 -8.6227188 -1.0642518 14
16.177479 -20.688934 -0.79543602 10
12.270621 12.038916 -1.1701542 6
15.446477 5.7408066 -1.300154 23
22.642994 -1.4608482 -1.7177751 6
16.382776 -8.6222668 -1.0854541 20
15.910043 -20.179649 -0.81015176 30
12.110084 11.96878 -1.1438613 6
15.29999 5.7502809 -1.2808679 35
22.474018 -1.3672197 -1.7045915 6
16.55677 -8.6438589 -1.1050417 14
16.050392 -20.226812 -0.84146398 67
12.07251 12.015179 -1.129114 6
15.111688 5.7428155 -1.2582313 19
22.359413 -1.2779794 -1.6955578 7
16.843346 -8.7076235 -1.1352956 10
16.311882 -20.387888 -0.8786816 62
11.958652 11.989371 -1.1074927 6
14.983926 5.7572126 -1.2435948 82
22.358673 -1.1957072 -1.6991119 7
16.973734 -8.7038298 -1.1523083 13
16.272535 -20.193968 -0.90032387 39
11.890626 12.008837 -1.0931805 6
14.823922 5.758183 -1.2235719 35
22.227871 -1.1069959 -1.6966877 8
17.118759 -8.7028866 -1.1770658 10
16.443502 -20.253874 -0.92885751 45
11.798265 12.003175 -1.073745 6
14.672987 5.7615528 -1.2099707 30
22.186954 -1.0234203 -1.6932873 7
17.256941 -8.6936922 -1.1946923 10
16.696714 -20.419876 -0.97177607 40
11.739558 12.027077 -1.0572677 6
14.527054 5.7658038 -1.1940731 28
22.185278 -0.94183969 -1.6968017 9
17.420437 -8.6885691 -1.2174143 10
17.034384 -20.677877 -1.0155081 18
11.655127 12.020002 -1.0383681 6
14.427745 5.7876925 -1.1793481 31
22.203377 -0.86494511 -1.6979612 9
17.55164 -8.6814423 -1.2315786 10
18.20962 -21.948061 -1.1063259 21
11.708696 12.164066 -1.029121 6
14.254532 5.7789555 -1.1587023 12
22.475723 -0.78517294 -1.7185507 6
17.787228 -8.7092838 -1.2597127 10
17.376762 -20.774111 -1.079499 9
11.501878 12.045552 -1.0003414 5
14.155386 5.799264 -1.144197 10
22.572826 -0.7057094 -1.7297451 6
nan nan nan 0
17.268463 -20.491707 -1.0966051 35
11.51615 12.136542 -0.99003887 5
14.111372 5.8417349 -1.1368896 9
22.335835 -0.62413806 -1.7114282 6
nan nan nan 0
17.412691 -20.531773 -1.1302465 9
11.472221 12.179276 -0.97520489 4
13.894639 5.8060613 -1.1129442 9
22.392796 -0.54356807 -1.7156397 6
36.275845 -17.285713 -2.6343689 40
17.636229 -20.641659 -1.1687226 39
11.261184 12.043289 -0.94345289 5
13.77071 5.8193216 -1.0968874 9
22.295109 -0.45161936 -1.7080132 6
36.24482 -17.09272 -2.6415219 54
16.101364 -18.699459 -1.0798837 93
11.155134 12.013597 -0.92350066 6
13.635162 5.8210354 -1.0798668 7
22.246704 -0.37292635 -1.7042022 6
36.399017 -17.018145 -2.6771061 9
16.191738 -18.665781 -1.1119622 42
11.139511 12.076777 -0.91092259 6
13.464995 5.80126 -1.0626624 35
22.272249 -0.29167318 -1.7138931 6
36.464378 -16.88612 -2.6988046 11
16.272514 -18.627253 -1.1350118 36
10.994602 12.007619 -0.88818157 8
13.403002 5.8328881 -1.0516444 55
22.447645 -0.21165267 -1.7273235 6
36.506138 -16.743256 -2.7258263 8
16.369505 -18.600374 -1.1633798 80
10.91215 12.009752 -0.86795247 6
13.329942 5.8648467 -1.0374081 55
22.313711 -0.12077697 -1.71697 6
36.503593 -16.56505 -2.7420869 8
16.572361 -18.692448 -1.2038746 50
10.9163 12.094593 -0.85699719 6
13.237819 5.8767929 -1.0265664 28
22.154463 -0.046418324 -1.7046964 6
38.140095 -17.155392 -2.8830302 8
16.839624 -18.86097 -1.2409664 20
10.876669 12.131255 -0.84256881 6
13.185859 5.9089103 -1.0164189 91
22.219301 0.027156577 -1.7096834 6
37.740261 -16.825285 -2.8633599 56
16.931223 -18.824337 -1.2651389 42
10.756406 12.085867 -0.8194558 6
13.119162 5.9368577 -1.0052572 52
22.513182 0.11006386 -1.7323141 6
37.823093 -16.696301 -2.887058 95
17.032656 -18.798212 -1.2945603 34
10.674981 12.078946 -0.80213338 6
13.079651 5.976831 -0.99622083 59
22.432865 0.19192776 -1.7261738 6
20.675714 -9.0365047 -1.5876977 114
17.390221 -19.072189 -1.3400787 9
10.644411 12.133604 -0.7859928 5
13.077306 6.0310273 -0.98995292 57
22.506685 0.28295231 -1.7319226 6
20.733936 -8.9629898 -1.6014692 214
17.62121 -19.170488 -1.3751315 25
10.495402 12.052501 -0.7640335 5
13.064632 6.0833497 -0.98297673 33
22.356024 0.35914189 -1.7204089 6
20.771402 -8.8975677 -1.6220515 82
17.629227 -19.038811 -1.3979237 9
10.414633 12.044295 -0.74427503 5
13.047235 6.1335368 -0.9756512 63
22.489735 0.44377691 -1.7229065 6
nan nan nan 0
17.36441 -18.622108 -1.394393 61
10.32859 12.033581 -0.72717083 6
13.038653 6.1879535 -0.96898901 40
22.587032 0.52855426 -1.7384207 5
21.70813 -9.1110725 -1.7150769 30
17.369757 -18.491642 -1.4208236 47
10.312981 12.100516 -0.71213335 6
13.056997 6.2553892 -0.96177649 67
nan nan nan 0
21.718073 -9.0217428 -1.7175391 108
17.340796 -18.325792 -1.4265579 107
10.341017 12.215157 -0.70265359 7
13.034137 6.3032889 -0.9591291 33
nan nan nan 0
21.593058 -8.8771572 -1.721627 9
17.320711 -18.177198 -1.4507926 85
10.325619 12.287922 -0.68758464 8
13.069691 6.3796921 -0.95568883 92
12.426063 0.42757964 -0.95447773 178
21.3521 -8.6867418 -1.7121694 9
17.158146 -17.875042 -1.4537227 140
10.43351 12.504603 -0.68320286 9
13.055628 6.4321842 -0.94860119 39
11.43305 0.43538585 -0.87831056 138
21.21644 -8.5410461 -1.7109766 6
17.073408 -17.656858 -1.4629039 64
nan nan nan 0
13.05937 6.4936109 -0.94024646 36
10.768827 0.45152298 -0.827402 43
21.022709 -8.3651381 -1.7047231 6
17.310598 -17.765253 -1.5038042 92
10.347848 12.583735 -0.65166551 32
13.053769 6.5506058 -0.93376076 111
10.234222 0.46670455 -0.78644425 31
21.091522 -8.3115969 -1.7161623 6
17.724884 -18.070238 -1.5570705 22
10.162021 12.459258 -0.62316895 19
13.065727 6.616662 -0.92851812 127
10.172828 0.50128818 -0.780065 10
20.863712 -8.1252069 -1.7069219 6
17.40679 -17.604113 -1.54497 81
10.070709 12.431162 -0.60589397 26
13.066377 6.6715193 -0.92230296 176
10.061397 0.53278476 -0.77165502 30
21.057148 -8.1202192 -1.7325634 6
17.484312 -17.559624 -1.5771239 39
9.9368095 12.353714 -0.58634597 10
13.082487 6.7402911 -0.91215497 184
10.05951 0.56967944 -0.76988596 61
20.914421 -7.9772167 -1.7185565 6
17.540657 -17.487614 -1.5941172 34
9.951128 12.464687 -0.57291615 9
13.082175 6.8067274 -0.90872067 193
10.102143 0.60926098 -0.77330309 218
20.802172 -7.8471942 -1.7266279 6
17.635284 -17.453646 -1.6233267 105
9.80865 12.374466 -0.55041146 9
13.079946 6.8665843 -0.89723569 174
10.084918 0.64534235 -0.77214825 230
20.554945 -7.6679697 -1.7077637 6
17.559483 -17.251745 -1.6281134 43
9.7080193 12.340054 -0.53059816 9
13.079582 6.9218106 -0.89088327 195
10.087472 0.68442172 -0.77075112 222
20.415298 -7.5266857 -1.7015418 6
17.625086 -17.189781 -1.6502591 52
9.6805925 12.393891 -0.51749265 10
13.073982 6.9861736 -0.88706511 40
10.094842 0.72211534 -0.77149773 226
20.49753 -7.4717836 -1.7254031 6
17.822046 -17.248972 -1.693282 83
9.6275053 12.410456 -0.50291306 13
13.117351 7.0653448 -0.87842131 58
10.08729 0.75875956 -0.76933795 222
20.350706 -7.3338575 -1.7185102 6
18.043655 -17.348 -1.7267246 144
9.5070581 12.352718 -0.47978154 24
13.125757 7.135016 -0.87020302 52
10.08444 0.79574049 -0.76932305 222
20.306166 -7.2338157 -1.7239974 6
17.898809 -17.0711 -1.7326846 114
9.3054819 12.174033 -0.45804602 40
13.10681 7.1811171 -0.86254436 18
10.096498 0.83395231 -0.76867676 221
20.205042 -7.1144285 -1.7208493 6
17.960098 -17.00436 -1.7545955 24
9.26931 12.214747 -0.44206488 43
13.11999 7.2509885 -0.85976589 20
10.083304 0.87009847 -0.76967019 222
20.046553 -6.9761333 -1.716483 6
17.970697 -16.895924 -1.7761364 62
9.1827116 12.193074 -0.42382982 36
13.141957 7.3261137 -0.84964532 28
10.090247 0.90798008 -0.76687515 188
20.066702 -6.9007764 -1.7236203 6
18.031549 -16.829105 -1.7936796 83
9.10145 12.17328 -0.40853971 59
13.163412 7.4014273 -0.84206206 10
10.086818 0.94674355 -0.7650882 72
19.970684 -6.7782168 -1.7242818 6
18.23456 -16.894028 -1.829841 35
9.0750446 12.231041 -0.38784674 37
13.219098 7.4966302 -0.83925074 9
10.083679 0.9837575 -0.75976497 205
20.059191 -6.734129 -1.7301034 6
18.350172 -16.876646 -1.8574284 103
8.9597063 12.155119 -0.37116024 34
20.893196 11.950048 -1.3121495 40
10.090283 1.0182047 -0.76049548 225
19.860855 -6.5866265 -1.7183837 6
18.672335 -17.047087 -1.9017833 141
8.90522 12.183191 -0.35485604 30
20.780668 11.986967 -1.2950046 38
10.095899 1.0597448 -0.76299304 231
19.771479 -6.4728122 -1.719586 6
19.789946 -17.934948 -2.0326946 60
8.908289 12.267996 -0.34042364 35
20.786978 12.087477 -1.2809621 6
10.087505 1.0927075 -0.76082885 227
19.732859 -6.3801684 -1.7215941 6
19.928867 -17.934622 -2.064389 37
8.77005 12.171071 -0.31827119 30
20.097439 11.785254 -1.2205087 121
10.108471 1.1324899 -0.75912619 236
19.722303 -6.296988 -1.7260469 6
20.0228 -17.886843 -2.0912342 36
8.7481136 12.230301 -0.30304399 32
19.85285 11.739794 -1.1918886 16
10.109337 1.1701332 -0.75770009 230
19.573599 -6.170527 -1.7183752 6
20.131548 -17.851824 -2.1197181 40
8.6889944 12.242117 -0.28658512 48
19.672981 11.721624 -1.1671833 10
10.094999 1.2077862 -0.7551592 230
19.46677 -6.0584846 -1.7179034 6
9.7460155 -8.5787945 -1.0344423 9
8.6262779 12.24397 -0.2700094 32
19.498093 11.723706 -1.1434193 8
10.100793 1.2460579 -0.75054759 234
19.326914 -5.9373174 -1.7037441 6
9.7460194 -8.5096254 -1.0400805 10
8.5349588 12.20452 -0.25525832 34
19.312372 11.703997 -1.1228492 6
10.105923 1.2843267 -0.75303686 231
19.533916 -5.9226246 -1.7273577 6
9.817997 -8.5092783 -1.053722 14
8.4875231 12.231793 -0.23934771 32
19.150536 11.692891 -1.0997815 6
10.091389 1.3200941 -0.75049835 229
19.455694 -5.8174081 -1.7257102 6
9.9109774 -8.5295076 -1.074443 28
8.4137735 12.21622 -0.22270747 59
19.03167 11.716258 -1.0795492 7
10.096497 1.3584321 -0.74943012 232
18.983854 -5.6005917 -1.6925735 10
9.9376431 -8.4892855 -1.0856028 27
8.3381567 12.201769 -0.20101346 30
18.823929 11.683682 -1.0505837 6
10.116535 1.3989073 -0.74589044 224
18.884104 -5.4959855 -1.6888945 91
10.032845 -8.5072145 -1.09969 14
8.3658428 12.334373 -0.18688133 35
18.747746 11.731768 -1.0330251 6
10.091721 1.433203 -0.74262738 203
19.023252 -5.4609122 -1.7066033 123
10.127995 -8.5243139 -1.1184878 24
8.2580051 12.262622 -0.1722628 24
18.631264 11.749545 -1.0132344 6
10.091463 1.4709316 -0.74118298 61
19.143215 -5.4194617 -1.7226735 111
10.169862 -8.4960976 -1.1314788 28
8.2582655 12.365063 -0.15224388 32
18.567768 11.804797 -0.99265933 5
10.115981 1.5124 -0.73797351 204
19.321283 -5.3934278 -1.7370112 50
10.310495 -8.5435734 -1.1552547 14
8.1724901 12.320179 -0.1408499 35
18.423899 11.808352 -0.9755671 5
10.100383 1.5479515 -0.73900795 233
19.262901 -5.3010931 -1.7441604 7
10.422411 -8.5782166 -1.1789954 17
8.0862064 12.287494 -0.12192912 33
18.34318 11.851667 -0.96190155 4
10.109272 1.5890788 -0.73827237 227
19.037926 -5.160593 -1.7220877 6
10.490992 -8.5642605 -1.1901824 26
8.0488558 12.324081 -0.10637289 26
18.032595 11.744843 -0.92506069 5
10.118532 1.6285684 -0.73395461 223
19.200493 -5.129168 -1.7421705 6
10.614347 -8.6003523 -1.2127756 20
8.0575695 12.431872 -0.091318704 32
17.86648 11.725665 -0.91094542 6
10.107447 1.6648272 -0.73535377 227
18.95307 -4.9887071 -1.7319348 6
10.687802 -8.59519 -1.2273797 26
7.9525833 12.368839 -0.072438486 26
17.711708 11.717131 -0.8827334 6
10.106575 1.702763 -0.73031318 227
19.1255 -4.959178 -1.7461151 6
10.741719 -8.5739346 -1.2422128 24
7.9282942 12.426053 -0.054376081 49
17.627876 11.754721 -0.85824496 6
10.125219 1.744101 -0.72667748 215
19.085642 -4.8742247 -1.7409273 6
10.838898 -8.5866613 -1.2572697 27
7.8747597 12.442358 -0.03866249 34
17.53334 11.78027 -0.84065288 6
10.113972 1.780369 -0.72449851 223
18.958715 -4.7643161 -1.7346421 6
10.877413 -8.5524902 -1.2680001 24
7.8153992 12.444356 -0.022968139 31
17.420231 11.797135 -0.82235932 6
10.112536 1.8183643 -0.72122937 220
19.019266 -4.705461 -1.7421302 6
10.935261 -8.5333281 -1.2834631 32
7.7719812 12.471539 -0.0073520467 32
17.26182 11.782335 -0.80207521 8
10.120644 1.8581526 -0.72044849 212
19.089018 -4.6485143 -1.7539495 6
11.044453 -8.5536079 -1.3025941 19
7.7525744 12.542428 0.010877603 37
17.108095 11.769491 -0.77492774 6
10.114137 1.8953116 -0.71502465 212
18.800814 -4.5053682 -1.7260267 6
11.141895 -8.5639534 -1.3229144 11
7.6896496 12.528306 0.029009534 31
17.038628 11.809498 -0.7589345 6
10.126965 1.9361725 -0.71277523 212
18.840845 -4.4419808 -1.7350929 6
11.188473 -8.5347071 -1.3323213 9
7.6329069 12.533649 0.044556446 23
16.909685 11.803291 -0.74030936 6
10.129714 1.9752208 -0.71162605 176
18.852318 -4.3683176 -1.7414902 6
nan nan nan 0
7.6076317 12.59568 0.062896818 31
16.85869 11.859776 -0.72173625 7
10.083632 2.0046339 -0.70345342 16
18.863644 -4.2981162 -1.7377484 6
23.053169 -17.306896 -2.7756634 89
7.5250897 12.557727 0.078136154 30
16.699495 11.835085 -0.69858503 10
10.100903 2.0465899 -0.70152366 120
18.859236 -4.2244363 -1.7427872 6
23.07494 -17.191389 -2.7912912 126
7.460784 12.5494 0.095988557 28
16.595528 11.852962 -0.67800325 24
10.14231 2.093719 -0.70307189 184
18.942081 -4.1701188 -1.7559253 6
23.280643 -17.212318 -2.8241618 38
7.4122043 12.572224 0.11148001 28
16.515976 11.887743 -0.65852273 23
10.105766 2.1229913 -0.69919914 147
18.669788 -4.0384569 -1.7327393 6
nan nan nan 0
7.3531222 12.571931 0.13181606 31
16.470921 11.942745 -0.63683844 59
10.093515 2.1590798 -0.69161439 111
18.802652 -3.991643 -1.7369516 6
22.610867 -16.462187 -2.7633417 59
7.3286414 12.620747 0.14757797 23
16.322506 11.926609 -0.61843002 93
10.105772 2.1986248 -0.6874966 93
18.689819 -3.8961306 -1.7319918 6
22.83036 -16.494343 -2.8079033 102
7.3194547 12.706696 0.16643326 35
16.194717 11.924459 -0.59393108 114
10.08837 2.2336004 -0.67957741 56
18.777445 -3.842602 -1.7354971 6
22.804932 -16.349079 -2.8075964 22
7.2281647 12.655062 0.1834597 78
16.029081 11.888938 -0.5682404 36
10.104172 2.277844 -0.67936498 38
18.741985 -3.7638047 -1.737734 6
12.392044 -8.8154173 -1.5352184 28
7.198688 12.706067 0.20191096 84
15.945872 11.917992 -0.54574239 36
10.120938 2.3187802 -0.67371053 40
18.810045 -3.7023573 -1.7427883 6
12.458095 -8.790535 -1.5420743 23
7.1860595 12.787428 0.22608392 29
15.832785 11.919762 -0.52230567 33
10.108083 2.354862 -0.664285 32
18.93684 -3.6552269 -1.7431725 6
nan nan nan 0
7.1811023 12.778463 0.24127965 38
15.845386 11.929138 -0.49500829 36
10.114062 2.3562329 -0.64648026 19
nan nan nan 0
nan nan nan 0
7.2698474 12.826209 0.22956653 58
15.93297 11.903838 -0.50008076 37
10.098638 2.313632 -0.63954723 20
19.312492 -3.8081954 -1.7271224 6
12.428237 -8.7693501 -1.5061959 24
7.3617554 12.883471 0.2152714 37
16.084589 11.925553 -0.51768243 35
10.131172 2.2820292 -0.64475679 34
19.825396 -3.9885094 -1.770712 5
12.409269 -8.8242474 -1.4942176 32
7.3443327 12.749581 0.20038503 33
16.154139 11.889976 -0.52580649 30
10.110233 2.2383969 -0.64294112 20
19.68498 -4.0354033 -1.7452677 6
12.369832 -8.864624 -1.4797916 9
7.3759799 12.696818 0.18691872 36
16.330561 11.927827 -0.54094845 62
10.113605 2.2002752 -0.64086747 25
19.656322 -4.1046772 -1.7333778 6
nan nan nan 0
7.3849182 12.610795 0.17049351 35
16.466911 11.935156 -0.55845141 24
10.121758 2.1613705 -0.64452416 20
19.8269 -4.2162189 -1.7425625 6
22.838903 -16.621733 -2.6913199 93
7.398417 12.533428 0.15686357 37
16.542921 11.89801 -0.56333476 19
10.1053 2.1191456 -0.64120919 19
20.026443 -4.3354535 -1.7505947 6
23.300024 -17.100761 -2.7228227 104
7.4673371 12.545039 0.14436744 58
16.640949 11.880645 -0.57976151 28
10.103224 2.0800693 -0.64062971 24
20.137041 -4.4404297 -1.7507758 6
11.53971 -8.534646 -1.3368391 9
7.5529985 12.598843 0.13223121 28
16.847332 11.935026 -0.59286672 61
10.120672 2.0450106 -0.63948709 31
20.082928 -4.5057626 -1.7329373 6
11.457597 -8.5390244 -1.3156843 9
7.5991321 12.5712 0.11917084 27
17.074684 12.00237 -0.61048406 82
10.108409 2.0039892 -0.64008814 20
20.353468 -4.6449037 -1.7503119 6
11.391139 -8.5545988 -1.3014497 19
7.6637788 12.578915 0.10126979 28
17.282146 12.053849 -0.63127369 34
10.105667 1.9649704 -0.6430999 26
20.322048 -4.7161903 -1.7453279 6
11.269487 -8.5279827 -1.2760253 10
7.7154856 12.564953 0.090849392 37
17.401796 12.04727 -0.64911538 27
10.10801 1.926991 -0.64102966 12
20.397953 -4.8126769 -1.7385252 6
11.227 -8.5607071 -1.2646563 17
7.7140965 12.460198 0.072151467 26
17.647484 12.121936 -0.66433245 14
10.110209 1.8890207 -0.63896024 19
20.724541 -4.9738302 -1.7528948 6
11.166524 -8.5763626 -1.2461874 12
7.7839961 12.475679 0.061903555 27
17.550976 11.961244 -0.6741181 23
10.121754 1.8528022 -0.64289808 25
20.585438 -5.020339 -1.7388549 6
11.076982 -8.5722847 -1.2247443 20
7.8642502 12.502172 0.046470132 38
17.614977 11.910588 -0.68998545 15
10.128366 1.8156617 -0.6447292 31
20.669065 -5.1210914 -1.7399124 6
11.014754 -8.5888433 -1.2113446 30
7.8917379 12.449389 0.028139886 30
17.749493 11.907006 -0.70497322 9
10.12501 1.7767725 -0.6459325 31
20.800568 -5.2346878 -1.7449485 6
10.914464 -8.5812902 -1.1917052 21
7.9485574 12.442889 0.012498241 37
17.711475 11.792106 -0.71691239 7
10.116813 1.7371228 -0.64323395 31
20.825878 -5.32231 -1.7334896 9
10.813644 -8.5663042 -1.1693985 30
8.0021753 12.426326 -0.0032052419 37
17.850031 11.790197 -0.73594654 6
10.123296 1.6982348 -0.64506 20
20.937073 -5.4325762 -1.7366878 115
10.677691 -8.5224667 -1.1482954 23
8.0508833 12.406734 -0.018922325 49
17.867706 11.708064 -0.74632555 6
10.114455 1.6586515 -0.64772922 22
20.747673 -5.468575 -1.7188284 134
10.565641 -8.4965858 -1.127507 13
8.0989904 12.381337 -0.029495357 32
18.119625 11.778463 -0.76659703 4
10.100871 1.6184157 -0.64471388 25
20.675686 -5.5307345 -1.6993896 88
10.481164 -8.4920578 -1.1074177 30
8.1432695 12.364188 -0.045222443 36
18.336502 11.828634 -0.78949201 5
10.131271 1.5852122 -0.64810687 29
20.651039 -5.6053491 -1.6914178 9
10.427422 -8.5119915 -1.0954033 14
8.2127256 12.366139 -0.061138958 29
18.421452 11.788068 -0.8029781 5
10.107305 1.5435213 -0.64802909 25
21.51037 -5.9233532 -1.755618 6
10.374687 -8.5385408 -1.0814713 24
8.2480488 12.330507 -0.074257828 32
18.514767 11.761464 -0.82088107 6
10.102911 1.5049682 -0.64920849 31
21.29285 -5.9475102 -1.7239892 6
10.270452 -8.5099955 -1.0593342 10
8.3133078 12.334782 -0.087664329 24
18.625128 11.735993 -0.83178324 6
10.127999 1.4707706 -0.65229195 30
21.535286 -6.1004238 -1.7374399 6
10.224617 -8.5353832 -1.0459647 9
8.3920631 12.353813 -0.10389474 23
18.781754 11.729653 -0.85239834 6
10.118612 1.4315454 -0.64958209 39
21.513369 -6.179502 -1.7295089 6
10.146713 -8.5366421 -1.0295249 9
8.4378366 12.328509 -0.11979966 31
18.877552 11.707232 -0.86691481 7
10.093534 1.3938624 -0.64948189 28
21.629965 -6.298923 -1.7326956 6
nan nan nan 0
8.5055437 12.330352 -0.13604362 24
19.081499 11.737131 -0.89019018 6
10.123188 1.3601547 -0.65288138 38
21.711388 -6.4131937 -1.7331007 6
nan nan nan 0
8.5369797 12.284077 -0.151752 34
19.230457 11.731857 -0.91110587 7
10.113149 1.3210776 -0.65373027 36
21.631002 -6.4757614 -1.7205155 6
nan nan nan 0
8.6047401 12.285366 -0.16810074 37
19.413628 11.736962 -0.93365723 6
10.103406 1.2785647 -0.65457553 23
21.984608 -6.6695375 -1.74238 6
nan nan nan 0
8.6589661 12.271499 -0.18165584 38
19.439301 11.664643 -0.94115704 5
10.11342 1.2403814 -0.65136498 14
22.037434 -6.7738738 -1.7322057 6
20.386196 -17.799065 -1.9759876 10
8.7443075 12.296618 -0.19590607 33
19.612524 11.675692 -0.95975137 6
10.097966 1.200924 -0.6518873 30
22.056173 -6.8682241 -1.723351 6
20.255396 -17.822315 -1.9458967 33
8.8190241 12.310588 -0.21270362 29
19.805141 11.69229 -0.98338497 5
10.087317 1.1621679 -0.65272254 36
22.535494 -7.1082125 -1.7543964 6
20.146469 -17.85783 -1.9177457 40
8.8683834 12.293288 -0.22900169 20
19.998438 11.707781 -0.99917525 6
10.125939 1.1325941 -0.65320945 58
22.363207 -7.1440983 -1.7263942 6
19.961906 -17.812712 -1.8820115 48
8.9375257 12.298517 -0.24317364 38
20.127144 11.684308 -1.0158937 6
10.100144 1.0922309 -0.65308446 36
22.691109 -7.3318791 -1.7450794 6
19.80131 -17.800121 -1.8493137 33
8.9616547 12.237267 -0.25873274 38
20.27742 11.672421 -1.037904 6
10.099117 1.0546745 -0.65278435 47
22.503519 -7.3624825 -1.7242665 6
19.289782 -17.468473 -1.7843504 124
9.0041332 12.205753 -0.27219227 38
20.462729 11.679468 -1.0577779 6
10.102801 1.0176297 -0.65457642 31
22.896215 -7.5928507 -1.7395887 6
18.708591 -17.079275 -1.7143447 86
9.0843296 12.220578 -0.29210725 36
20.704693 11.717204 -1.0849279 4
10.096416 0.97960836 -0.65572268 34
23.070465 -7.749115 -1.7506509 6
18.683737 -17.182484 -1.6952413 36
9.1807041 12.260676 -0.30475104 33
13.266554 7.4468107 -0.70458323 9
10.090002 0.94165713 -0.65509605 63
23.126087 -7.8532324 -1.7395633 6
18.240643 -16.892796 -1.6339152 127
9.2373734 12.242681 -0.32144469 40
13.206141 7.3493867 -0.70801193 8
10.118119 0.90687472 -0.6584996 72
22.958471 -7.8992553 -1.7163844 6
18.052002 -16.841349 -1.6005725 83
9.279788 12.210121 -0.33772829 32
13.132072 7.2452664 -0.71062303 7
10.106499 0.86671662 -0.65931755 36
23.245525 -8.0934439 -1.7312611 6
18.082119 -16.993752 -1.5866802 20
9.3789549 12.247252 -0.35340682 21
13.118653 7.1752882 -0.71907049 8
10.089716 0.82802409 -0.65803653 45
23.362118 -8.2301836 -1.7333332 6
17.872196 -16.920172 -1.5517981 38
9.5269566 12.359986 -0.37407523 10
13.089359 7.1029868 -0.72411001 22
10.107721 0.79220361 -0.65725553 32
23.346752 -8.3210917 -1.7212442 6
17.8797 -17.051901 -1.5358891 35
9.5885668 12.33724 -0.38572273 10
13.06915 7.0242558 -0.72676623 28
10.100605 0.75439626 -0.65662348 39
23.457436 -8.4575825 -1.7227706 6
18.412632 -17.695555 -1.5602887 35
9.7223864 12.428762 -0.40903121 10
13.08982 6.9736733 -0.73959911 37
10.093234 0.71664435 -0.65775663 27
23.811413 -8.6839647 -1.7375931 6
17.975552 -17.40262 -1.510777 84
9.7150621 12.326104 -0.4180223 10
13.068604 6.9068265 -0.73980904 108
10.100771 0.67996901 -0.65809447 19
23.74724 -8.7593222 -1.726197 10
17.834229 -17.392776 -1.4777278 46
9.712245 12.225779 -0.43248948 10
13.068012 6.8424649 -0.74874586 112
10.108059 0.64324123 -0.66019922 47
23.81922 -8.8851776 -1.7113272 18
17.806429 -17.487267 -1.4582947 56
9.7992191 12.251723 -0.4512082 10
13.079349 6.7874436 -0.75583184 177
10.095409 0.60528117 -0.6592356 69
24.090467 -9.0870934 -1.7239945 173
18.041254 -17.848166 -1.4603064 62
10.066415 12.491738 -0.47565418 8
13.086134 6.7302008 -0.76007354 186
10.102654 0.56854963 -0.65780598 211
23.955296 -9.1365433 -1.703047 9
17.634056 -17.573545 -1.4016935 92
10.033999 12.363034 -0.48899829 9
13.078962 6.6660299 -0.77120727 187
10.109423 0.53175652 -0.66167468 245
24.061859 -9.2783613 -1.7038099 6
17.65111 -17.719917 -1.3947231 67
10.172649 12.44935 -0.50800264 30
13.069434 6.6066751 -0.77715409 184
10.086473 0.49170792 -0.66005445 138
nan nan nan 0
17.790546 -17.984882 -1.3793577 39
10.226333 12.41753 -0.52541429 15
13.066401 6.5451307 -0.7833423 197
10.127968 0.45651621 -0.66444194 33
nan nan nan 0
17.788376 -18.114912 -1.3617558 59
10.214001 12.31041 -0.53667212 10
13.067817 6.4860277 -0.78467536 71
10.618346 0.43961525 -0.69278604 10
nan nan nan 0
17.441154 -17.904434 -1.3184123 49
10.333392 12.366306 -0.55779845 13
13.072948 6.4289827 -0.79643846 80
11.158105 0.4209888 -0.73181945 10
41.719391 -16.793852 -2.8832707 9
17.566875 -18.159792 -1.3102547 46
10.375067 12.324173 -0.57192087 10
13.064493 6.3654785 -0.80479646 61
11.7729 0.40096486 -0.77204818 25
42.426239 -17.259356 -2.9120634 9
17.521965 -18.246601 -1.2849683 59
10.457506 12.338898 -0.58855647 9
13.060373 6.304348 -0.81085259 37
nan nan nan 0
42.111225 -17.294195 -2.8781071 9
17.399982 -18.240185 -1.2624882 28
10.545468 12.355082 -0.60833853 10
13.064985 6.2476397 -0.81743932 34
nan nan nan 0
41.757145 -17.345009 -2.8345098 9
17.392813 -18.379711 -1.2403564 9
10.583772 12.308389 -0.62236702 9
13.064841 6.1888428 -0.82371914 21
26.306854 0.60637289 -1.7200513 1
nan nan nan 0
17.62005 -18.750412 -1.2383684 23
10.611972 12.250166 -0.63861734 10
13.085966 6.1430168 -0.83140117 44
26.887558 0.52113312 -1.7578942 5
41.438656 -17.569979 -2.7735703 9
17.521339 -18.782743 -1.2134303 37
10.667393 12.227709 -0.65378934 10
13.09468 6.0886278 -0.83317763 50
25.667114 0.39886141 -1.6779989 1
20.75922 -8.8917894 -1.3716748 130
17.27387 -18.666979 -1.1699345 23
10.734715 12.214307 -0.67246205 10
13.111697 6.038208 -0.84560341 40
26.431721 0.31381577 -1.7279056 6
20.717552 -8.9639654 -1.3669575 240
17.121225 -18.618912 -1.1411226 32
10.797895 12.204413 -0.68834096 9
13.117615 5.9882927 -0.85238093 39
26.33782 0.22532354 -1.7217135 6
nan nan nan 0
17.016552 -18.641649 -1.116261 32
10.867501 12.188533 -0.70431423 8
13.154778 5.9415636 -0.8609494 39
26.568022 0.1206023 -1.7367198 6
nan nan nan 0
16.865316 -18.62545 -1.0844775 62
10.833999 12.07021 -0.7139383 6
13.219541 5.9181166 -0.87161326 71
26.862648 0.032829713 -1.7559637 5
19.519293 -8.6933746 -1.2635069 8
17.107954 -18.999687 -1.0853244 9
10.97476 12.137333 -0.73768401 5
13.28178 5.887641 -0.88203692 34
26.468431 -0.064695947 -1.7301979 4
19.378658 -8.715991 -1.2451314 10
17.614761 -19.721025 -1.0943316 38
11.003128 12.083721 -0.75126636 5
13.362248 5.8648081 -0.89372987 31
27.046768 -0.16527565 -1.7680286 3
19.183569 -8.7129173 -1.2234035 19
16.356506 -18.447857 -0.99844658 86
11.032527 12.03566 -0.76503515 6
13.4454 5.8482022 -0.90322906 38
26.951189 -0.26351166 -1.7618277 4
19.006901 -8.7168484 -1.2030135 10
16.29607 -18.509314 -0.97248715 39
11.103172 12.024024 -0.78142112 5
13.516721 5.8204041 -0.91442865 27
26.740631 -0.35016903 -1.7481244 5
18.833494 -8.7130194 -1.1828078 22
16.383266 -18.746328 -0.95966208 24
11.188779 12.032256 -0.79907984 6
13.624733 5.8078117 -0.92818719 38
27.083223 -0.46343499 -1.7706195 3
18.672312 -8.7296162 -1.1638658 23
16.347797 -18.844578 -0.93945688 16
11.28076 12.034019 -0.81976426 6
13.721054 5.7838917 -0.94110972 35
26.562565 -0.55194968 -1.7366914 3
18.500799 -8.7321978 -1.1442492 11
16.223991 -18.847414 -0.90568638 30
11.350806 12.028633 -0.83952665 6
13.850357 5.7843781 -0.95401931 10
27.088455 -0.66224635 -1.7807087 4
18.275421 -8.7078629 -1.1214767 19
17.456902 -20.430563 -0.95950621 88
